ply
format ascii 1.0
element vertex 661
property float x
property float y
property float z
property uchar red
property uchar green
property uchar blue
end_header
0.23302597380646695 -1.5085681969116314 4.756937153930516 87 87 59
1.0006022381537325 -0.38891810605943555 2.3822065200681424 171 163 161
0.31346597346889865 -0.06534747795052573 1.054068736657746 156 145 139
0.08763553542840147 -0.06805119400197389 0.8302370404970792 61 35 8
0.08752199440531641 0.003934759358005161 0.8291359098491841 118 95 77
0.31292434788772056 -0.062370227976167404 1.0545521026069102 46 35 31
0.08828408730822894 -0.04865844462485399 0.8319957567224717 106 85 68
0.08828408730822894 -0.04865844462485399 0.8319957567224717 106 85 68
0.22114567463644438 -1.2667983924839508 4.6753631581729795 119 117 100
0.22349325953137317 -1.3367018676112168 4.726069218113294 95 88 62
0.3130531858645233 -0.009415322694111014 1.05525645603605 177 159 144
-0.3586401594753511 -0.16744917147692467 1.4049806090790153 134 120 109
0.08814697204729799 -0.06634783456362098 0.8290534064544921 133 109 81
0.08814697204729799 -0.06634783456362098 0.8290534064544921 133 109 81
-2.463228835318645 -0.17058626461449986 5.351750388965909 59 48 46
-0.13411643576492266 -0.01286948087413202 1.08812517350226 92 68 40
0.2235782451643571 -1.8666471580949668 4.765474149489966 96 92 83
-2.4924953558705565 -0.21250499673545872 5.416570037651112 83 72 76
-0.35409542626137286 -0.013559175064476613 1.387932439039801 177 170 162
0.08864960610779284 -0.0009982513509070726 0.830445308788502 46 23 5
0.2196523369449586 -1.653752866149935 4.716166611338068 171 157 128
0.2177021043264534 -1.5888174581631025 4.692404937300412 145 125 82
0.08889426271584877 0.0013606904091637661 0.8308381716995532 29 6 0
0.2177021043264534 -1.5888174581631025 4.692404937300412 145 125 82
0.08908318789862057 -0.07484215248336759 0.8313504234439738 129 100 68
0.5056543147311723 -1.344761428299038 4.71554317332906 174 148 76
0.08912032865595554 -0.07485496966243105 0.8309632126435819 129 100 68
0.9464055441586721 -0.2607927940038665 2.304878971520828 99 95 96
0.9460887641402493 -0.27897124340086066 2.311997938301369 158 152 152
0.5043314781102424 -1.411532002540101 4.696173591333533 194 157 86
0.31155910435796674 -0.004299874870639971 1.053711951526623 111 94 78
-0.3529093341380404 -0.01649404013989026 1.3871524925545409 135 128 120
-0.3529093341380404 -0.01649404013989026 1.3871524925545409 135 128 120
0.08936984678221299 0.0018813321585317167 0.829758686927969 121 98 82
0.08959672701353452 -0.020707799515264604 0.8309670545734816 54 32 8
0.08959672701353452 -0.020707799515264604 0.8309670545734816 54 32 8
0.0896853740318824 -0.03028823214496133 0.83130518668269 45 25 0
0.0896853740318824 -0.03028823214496133 0.83130518668269 45 25 0
0.31149882933559775 -0.052109673754949036 1.0554146962146258 161 143 129
0.20535960867044922 -1.5789130172350596 4.728864403772319 193 162 106
0.31112897960482544 -0.07918242888045375 1.054817161496741 154 131 90
0.20279588899661377 -1.4687660476785902 4.714064127139751 82 84 63
-0.13609980942811287 -0.07159638201667012 1.0868602657100157 113 88 58
-0.13609980942811287 -0.07159638201667012 1.0868602657100157 113 88 58
-0.1360019816563564 -0.05065234206200471 1.085165864585605 94 75 45
0.2013872438081291 -1.7654606629692253 4.785482986676361 208 175 96
0.1988177970549135 -1.2093922761570775 4.726386964118682 134 123 101
0.1983226362155806 -1.3273418301257582 4.71585517319826 104 99 79
0.5156842884140129 -0.06684654085849427 1.3820128621763683 175 161 135
0.19634215579801212 -1.5976220535676244 4.675722533181215 192 159 106
0.9427442665751096 -0.3460606143340084 2.3442440847834534 156 152 153
-0.16759047040999064 -0.00040917594499952515 1.0791574070902339 166 153 137
-0.3511151059836614 -0.01952641147174387 1.3853073526737942 173 166 159
-0.13666141878797172 -0.06979214191511704 1.088814969567628 141 118 87
0.7077565112180754 -0.03482654468971622 3.0125972969616366 146 142 169
0.19164385485814817 -1.4300106809988684 4.751831922146691 158 152 134
0.19042670542144854 -0.9049080312290525 4.722326938425534 128 71 60
0.18439045377143448 -1.2755517814384847 4.697603027581986 121 109 82
0.09155979766664048 -0.006055032395289385 0.8320424465058913 86 63 45
0.9482516690535947 -0.38421767239832105 2.3784255506834824 88 79 70
0.09195744902831358 -0.07364201665225051 0.8331921445922297 119 92 63
0.09195744902831358 -0.07364201665225051 0.8331921445922297 119 92 63
0.5215805277256808 -1.5342532050617352 4.721630940620434 168 147 63
0.5245954961872313 -1.4958916500477861 4.748771309396408 179 147 60
0.5213828586962311 -1.224310160633156 4.719097891903744 93 86 67
-0.13723856744194823 -0.012755290286741171 1.08688610896588 160 139 112
0.5653168032536958 0.02013291187814357 1.4199662066919592 88 77 78
0.09248829407852706 -0.07185833310611912 0.8345679831685738 58 31 2
0.09248829407852706 -0.07185833310611912 0.8345679831685738 58 31 2
0.5202817733331364 -0.019603690364853522 1.381838868860013 118 106 84
-1.0902233868418265 -0.996212907740243 5.221860696175394 97 65 54
-1.0910022976315448 -0.9972321272598191 5.225079736540499 100 68 57
-0.13692294499987234 -0.07504215505284348 1.0818304469557707 155 130 100
0.5216631805393754 -1.3633214940301588 4.7007277295797 184 151 71
0.5205652088743993 -0.07565736170552367 1.3810486353031097 103 79 53
0.092865088068697 -0.008003186792682438 0.8348042883431546 42 19 1
0.09326459637700879 -0.07706187176051865 0.8375508729331274 116 90 65
0.5220142285524599 -0.02887799753510531 1.38357742253733 156 147 132
-2.512295996859178 -0.16792742135060953 5.5423693390683715 119 107 107
0.5286780755340873 -1.5516582295249095 4.727861252916548 109 93 27
0.5307704477516888 -1.4181563681488907 4.742084843364325 184 149 53
0.9436060390360915 -0.39191024838287597 2.393884407884391 174 165 158
0.525318525759374 -0.019717443665411404 1.3847589564078793 147 136 118
-2.4628292288036135 -0.14671674732798431 5.440079436459537 63 52 50
0.16726236389364763 -1.5967087644526936 4.745256265150998 141 104 59
0.16586907545388344 -1.3037481404586166 4.726517064085122 179 150 84
0.7330105899813979 -0.039971252189784263 3.004263335078176 92 87 117
-0.11434544224353893 1.31647651757281 -3.2798231418210717 98 94 91
0.16582527777072553 -1.317658388458652 4.776402859119656 190 160 95
0.5260399331166815 -0.02622162494115109 1.3839423241110689 123 115 102
-0.3487770547109933 -0.06088424811269102 1.3859354963597845 178 171 161
0.7429006517386795 -0.022859363576082713 3.0205189871827254 142 137 160
-0.13817985831634744 -0.06692171001130118 1.08294117141923 144 123 92
0.15425643632283223 -1.2854374212147281 4.649648829199609 191 162 94
0.30804100603682283 -0.015327492211456352 1.0554288186517695 184 167 152
0.5355850930573166 -1.5245038687212453 4.737006108716255 162 147 87
0.5394353922352441 -1.503311812977482 4.757632993108713 173 151 88
0.09522451704655749 -0.061622928378457176 0.8369194680957441 56 35 4
-0.1385628372662355 -0.009220629706685463 1.082739009571676 62 44 18
-0.1385628372662355 -0.009220629706685463 1.082739009571676 62 44 18
-0.139075339505721 -0.011225387017476223 1.0860841948454893 165 147 121
-0.1392752156073068 0.01107383229943633 1.0871757317331106 146 115 85
0.02005952583975169 0.03212669755494051 0.6282055723552188 195 167 155
-1.914101575585062 0.014005284840816146 4.8114319693246355 63 36 25
0.540359951623513 -1.44762013035825 4.725214938392605 105 88 42
0.14619400983812622 -0.8881840916948959 4.680500608150445 149 94 89
0.3061427533358595 -0.07389649872475766 1.0520011595430092 190 175 154
0.14001096929790435 -1.6042693552489835 4.694235947636343 204 170 106
0.30703248183175386 -0.042075142720855184 1.0556380565891441 149 135 106
0.5425672232656679 -1.456366758226013 4.725425277436402 97 81 33
0.5429241206403443 -1.5350435420187316 4.714131359031774 87 80 40
-0.3469584343598277 -0.0017176284277847398 1.3889657867830203 158 148 139
-0.9697803718246987 -0.4075241783928358 5.133084915854556 40 19 15
-0.1401407291553805 -0.029373567865038197 1.0821850337062433 157 141 116
0.7539881351762195 0.006743074267291642 2.95120196984163 155 146 165
0.760828012826565 -0.04675722717427006 2.9747409337454354 103 98 120
0.7655758802981081 -0.06688145585376891 2.992195692897934 109 101 114
0.1302960672924093 -0.923292037322795 4.756381015380202 115 74 72
0.1265804050654764 -1.5756625150288257 4.704990469712703 208 174 110
0.30630675857033773 -0.006303440699626334 1.0588772709807301 144 128 115
0.5526331363221533 -1.419508177411036 4.726233872401713 80 68 28
0.12198564360054005 -0.9404412630968285 4.748542239076901 137 88 92
-2.394793257897334 -0.1606968212040788 5.080855604933396 21 18 25
0.5560903050039172 -1.6188891069636437 4.735020553894807 113 101 43
-0.1940547366094836 0.021034414932481954 1.1099161891231193 58 29 21
0.11453302300405258 -1.4394398858947508 4.730014182141082 180 153 106
-0.18682973804416741 -0.008180769784313674 1.095619802065965 103 81 57
-0.18762825308734465 0.014642600489163349 1.1008200192364617 60 32 20
0.11068646041486076 -1.4791531792808694 4.70315857602368 199 170 114
0.11068646041486076 -1.4791531792808694 4.70315857602368 199 170 114
-0.14196021214601426 -0.021508196149264493 1.0809710238047965 64 49 29
-0.32233558347736063 -0.057629081689585214 1.4179907639077751 147 130 112
-0.18134558992587113 -0.03393605015473254 1.0872661310173954 86 71 48
0.5515952262075724 -1.0627656128743652 4.658516957772674 127 119 112
-0.18000905859439156 0.00898690321227673 1.085940715744582 159 132 103
-0.17897029154356603 -0.023751257060219164 1.0846526080005499 173 160 143
0.10592121061492667 -0.9117458154562038 4.798680907941638 141 90 89
0.2409081107095864 0.024886153839142316 1.4435843037872724 169 148 143
-0.175762755047981 -0.0750852405562233 1.0813329999762404 169 148 121
-0.34420995826615225 -0.0675044881616616 1.3861708752406745 121 109 93
0.30414823954933745 -0.07126352861260202 1.0549151703403417 184 172 156
0.5636449611745608 -1.4904326720137926 4.731320897008676 72 68 39
-0.174622278076831 -0.07304614684090384 1.0802054387002116 152 135 107
-0.17571903733986177 0.014876112454266994 1.0898451242107259 57 28 11
-0.1740187129554732 -0.052838580388254584 1.081795001536072 157 150 150
-0.17351933207196035 0.00918110434777455 1.0831828151953036 75 49 22
0.5580533027692107 -1.6828581514936736 4.668113133213178 109 101 54
-0.1723308256637278 -0.07685338830257456 1.079391847571635 155 130 100
-0.3252609744704781 -0.01488227532138406 1.4043125304596014 110 102 89
-0.3252609744704781 -0.01488227532138406 1.4043125304596014 110 102 89
-0.14344513612092638 -0.0296248220940663 1.0799373811028832 163 148 125
0.5690105209178945 -1.2873482067985007 4.737744815199054 92 87 68
-0.14333533009575003 0.0007186358111704627 1.078549330203044 147 132 111
-0.16956924700499304 0.0008011874872615511 1.080056319765513 116 103 87
-0.16956924700499304 0.0008011874872615511 1.080056319765513 116 103 87
-0.16936578360956633 -0.049502991664526236 1.0788105189887252 107 93 82
-0.34320989463989304 -0.060751058626285485 1.385536353671111 116 110 98
-0.3258082465713156 -0.006407960005762892 1.3967446405396942 169 152 135
-0.16802137979570644 -0.07476521544664448 1.0766861357134527 94 70 42
-0.1435009964647998 -0.06774927571233832 1.079251145182322 158 141 113
-0.1683965239794836 0.0074141024863510225 1.0801188047528556 175 154 133
-0.14410847464820695 -0.04995033802691827 1.083361673233131 130 113 103
0.051371854763624894 -1.2877651521760973 2.961325703492112 121 109 95
0.7337868354472618 -1.7037550213442045 4.721106600832884 126 119 109
0.08031357378987154 -0.8287220346787261 4.660941369772936 104 93 99
0.08097681177785412 -1.448905288494063 4.703426789428874 211 180 125
0.2896617077639997 -0.002016357814112341 1.0739015133020207 189 165 139
-0.166753283764837 -0.049161253187890046 1.075623366841984 114 101 87
0.7366667837919996 -1.5110172555494361 4.764366307042594 131 125 111
0.07930206241377359 -0.8387377217112683 4.713379458288893 104 93 99
0.2897808838520012 -0.03926622501973011 1.0726299043804326 72 58 32
0.7361436220280491 -1.3019485718975417 4.772096772304473 121 114 108
-0.1701218099383614 -0.16657454427286383 1.0991383309803888 91 80 74
0.2915321707597765 -0.045649405392282995 1.0772946411566053 201 185 159
-0.34288273789294005 -0.015231209559214046 1.3872157870992048 182 175 167
-0.798356752355936 -1.4919232070032995 5.166007045057233 90 66 69
-0.1666469270191386 -0.01722218718078848 1.0783311663416832 187 171 156
0.4435808938265143 -0.07093505869582363 2.890181030751672 72 48 54
0.4435808938265143 -0.07093505869582363 2.890181030751672 72 48 54
0.43917140766092877 -0.14620528585981213 2.8886499616797443 33 24 25
0.7235289939094475 -1.0985197797696682 4.7683122491000365 106 108 105
0.4349685516370616 -0.03282049586860529 2.885671767179651 133 122 128
-0.16727739824914056 -0.17971961721089327 1.0961784375467785 180 170 163
-0.32882919315159054 -0.023719215259082604 1.3942833406699968 168 159 150
0.7136425769441491 -1.3971683124965206 4.74169160341132 178 148 71
-0.16368517024893414 -0.03729002923164038 1.0760016302694904 127 112 87
-0.1636289473363716 -0.026522951572843286 1.0756952189989626 79 64 43
-0.16348399626561622 -0.06429469424930521 1.0759643427721344 74 65 56
-0.14410705368544408 -0.07058496812112998 1.0793361318028236 105 86 56
0.7203441901048782 -1.836537336717769 4.808695719902305 166 139 58
0.7119935025644976 -1.4919545635686862 4.755943215034342 121 112 89
-0.16350467832737572 -0.05772812707328679 1.0766350362591521 72 65 62
-0.16350467832737572 -0.05772812707328679 1.0766350362591521 72 65 62
-0.16320791725272854 -0.022850234324559748 1.0770741836984739 177 162 143
-0.16320791725272854 -0.022850234324559748 1.0770741836984739 177 162 143
0.5757493539990266 -0.9141275336723574 4.7444293537476545 145 92 58
-0.1671023522754604 -0.15426296965079422 1.1035051022610975 34 21 13
-0.16263374299713015 -0.00912366664677856 1.0747787161701141 173 160 144
-0.16276818727131517 -0.015439499039787764 1.0759914090845815 123 107 92
-0.1626274974252221 -0.013245558090794687 1.0771492653926733 122 106 91
-0.1626274974252221 -0.013245558090794687 1.0771492653926733 122 106 91
-0.14427280598838604 0.004024096204811307 1.0794503388508396 135 117 95
0.41768556610579816 -0.16138689884009014 2.824306717764502 111 103 116
0.29282671682388084 -0.08107189641428002 1.0675120036269938 191 168 136
0.8479681017779821 0.033714189280895666 -5.623024854753507 170 158 144
-0.14501708372472158 -0.031704483270679436 1.0835398685455113 52 36 10
0.29294122313396853 -0.027338956778264065 1.0667288442447371 191 176 157
0.30363258695979745 -0.01672226303619245 1.058068454990093 133 115 101
0.6875590412394321 -1.1078521161776087 4.693735108174787 106 114 116
0.06302358436291294 -1.8786435190610016 4.815862494512268 94 95 89
0.2938347562871757 -0.0030202493796824504 1.0653007595837698 71 54 34
-0.14464682093012643 -0.07601889677342133 1.0784622899396754 160 138 101
0.41955865754214267 -0.13366276587326875 2.8834263323258056 47 23 31
0.303123024255258 -0.0531411998213873 1.0570888213597225 186 170 155
-0.16318392883857044 -0.17196740446479564 1.0939987391112787 186 176 167
-0.1601729025658477 -0.06587622208806342 1.0772856547149525 169 156 147
-0.1603752778001526 -0.008993745686248208 1.0804459217941424 170 157 141
-0.15985099784978946 -0.033528506377077875 1.0782549665060333 169 155 129
-0.15916221085190818 -0.0685828180885531 1.074092315207506 176 160 145
-0.15925002066442032 -0.015716852242659077 1.0748161384625812 149 133 117
-0.15905285453558457 -0.03675029963864999 1.076379493879566 147 132 109
0.29443009119724206 -0.07647204955437709 1.0643273316242747 157 141 115
0.6781395770718696 -1.5399977796660878 4.761587165045063 104 75 29
0.6781395770718696 -1.5399977796660878 4.761587165045063 104 75 29
-0.15786304953243133 -0.05906017625064421 1.0757991983302873 155 147 145
0.30287070735456795 -0.06981413745163677 1.056851705191532 31 22 7
0.4045471834951489 -0.1387852573694835 2.866104505636739 128 108 119
0.668783593788915 -1.7710259323225084 4.7491934956027935 74 45 5
0.29569895730213747 0.00060654133621013 1.0641948881561787 194 172 151
0.2956826553889895 0.0030440246480278035 1.0640780108028565 210 185 155
0.3032488394197407 -0.03529089124153357 1.0583598781532209 184 168 143
0.3032488394197407 -0.03529089124153357 1.0583598781532209 184 168 143
0.6708775502451206 -1.735695972219413 4.782533805156831 176 152 81
-0.3339906832543497 -0.014881330608115266 1.3921514886445427 107 98 89
-0.15559990130870965 -0.039188604877256825 1.0766925676200316 114 100 87
-0.334522881934539 -0.006456390937566442 1.3930928061886874 177 160 144
0.6613311110693716 -1.695849127201088 4.752197538185897 98 89 49
-0.155207930409162 -0.05737318345485201 1.0760333468429768 61 53 51
-0.155207930409162 -0.05737318345485201 1.0760333468429768 61 53 51
-0.33461896031762783 -0.06283239375630038 1.3923588677062073 116 106 94
0.2966587584755004 -0.07956347957942667 1.0624061112541328 195 175 142
0.2966587584755004 -0.07956347957942667 1.0624061112541328 195 175 142
0.03770733526607113 -1.7529938641429468 4.582573099316593 161 155 139
0.6625950624758085 -1.117842745516041 4.781092036970682 111 119 122
0.6513817248779605 -1.8069258466772933 4.7037313976640895 177 155 80
-0.33446052030496937 -0.02406497682291313 1.3899227980116855 169 162 152
-0.1544047786927913 -0.06900942025623398 1.0753140953010938 104 85 69
0.6386268521097814 -0.889727201848339 4.632804730115203 140 59 38
-0.1544803746048618 -0.05534703953729055 1.0788552053025475 148 141 136
-0.154479051951252 0.007295030102992752 1.0789039806034864 180 157 133
0.3027384847873284 -0.0424480883510533 1.057161565552971 132 118 92
-0.15644559877439532 -0.17476075210443923 1.0933234239559668 181 171 162
-0.3401329915783396 -0.17308172771380193 1.411177058356963 121 109 97
0.03613317769259333 -1.5063239463080076 4.761618483951366 204 174 112
0.03602656954639389 -0.9019405756129585 4.780516217444666 142 94 88
-0.15340281517358031 -0.04938327620377483 1.074938448843414 100 82 68
0.29826441847098206 -0.008796951079286203 1.063099312020962 190 177 161
0.6480108992271939 -1.6282186095222613 4.755269215853971 177 152 78
-0.1529825657219535 -0.0712801607898644 1.0771323082615707 103 82 58
0.03418421472251171 -1.8005058815764658 4.70464714789045 169 163 147
0.2990167150342205 0.0027033906881025376 1.063524867609574 209 185 161
0.2983037933508646 -0.06230331642251583 1.0605613678012478 69 61 62
0.6326017461689489 -1.1258488994763425 4.687214951826574 100 109 113
0.031849226395825755 -0.8685898956534688 4.734684383632806 50 30 31
-0.3367764949847929 -0.007405866547640005 1.3893939670587279 150 137 121
0.6416420471501215 -1.7544568271193655 4.7670382089085095 150 115 55
-0.1545547821368109 -0.1780606390320499 1.0944953871165024 168 159 150
0.6351381944390837 -1.4437856029993215 4.721347451565558 143 136 118
0.6379358423894477 -1.7683260372242413 4.743168166259843 158 123 63
0.6335619009794264 -1.5597248377592032 4.711336866602939 89 78 50
0.639301991264868 -1.773531150145982 4.757029113827266 157 123 59
-0.15169670264839924 -0.06654725091256236 1.0759770785626286 163 147 132
0.29862906259619826 -0.0567008698928253 1.0598525589773713 175 165 150
-0.15169670264839924 -0.06654725091256236 1.0759770785626286 163 147 132
-0.15242376164233232 -0.02624260227492915 1.0818721875408308 58 42 19
0.30007411461217054 -0.0596841980373269 1.0642671707666873 176 167 160
-0.1515103610041629 0.006962647097473289 1.0775414358395035 186 164 140
-0.1510038268937258 -0.05345631108932601 1.0759785778597 151 141 136
-0.15111535846463992 -0.021254473155341732 1.0769956220232533 68 53 33
-0.15111535846463992 -0.021254473155341732 1.0769956220232533 68 53 33
0.6315525841044741 -1.6612822369844649 4.750751625794587 102 96 60
-0.1534314279916333 -0.17111426880647332 1.0940661541937013 163 151 139
0.6318769769328006 -1.5122170079028128 4.770185743006611 78 72 56
-0.1499883344087812 -0.00214026794787013 1.0744174653413319 173 160 143
-0.15288102907409107 -0.17258922050149872 1.0964124708556837 57 45 33
0.6300503219486524 -1.4065986657698553 4.761284709205269 121 123 99
0.2997454190910783 -0.05283424492465563 1.0601494677921866 178 164 152
0.2993699572936371 -0.00826320821150985 1.0582640645519528 186 173 157
0.30042221638384226 -0.023507445308068878 1.0613766477687452 183 167 151
0.3001438827953784 -0.025295701975189863 1.059923295423679 67 50 34
0.02500810680236154 -1.905263986810895 4.769239401051324 99 93 93
0.30058324710659523 -0.054506100747326654 1.0610906150410269 123 107 91
0.620263861561498 -1.324298745121621 4.72870725296779 154 128 61
0.6183597592700595 -1.457672310043368 4.7163070852434785 63 56 37
-0.14945819938441973 -0.07859170298296737 1.0774452378093646 151 124 89
-0.14935579750126637 -0.023484503819354113 1.0772962105408403 165 150 129
0.6123700714201921 -1.3416719375800312 4.700129305841486 116 109 80
0.3004679275791171 -0.07799653504778922 1.0588864217770317 182 165 139
0.6224139228192451 -1.3177635517586004 4.782958434371678 151 125 60
0.6135566035597303 -1.5284346349969264 4.722102839314837 82 76 56
0.30051963268657494 -0.038161193266934706 1.058984074944867 65 49 23
0.6085765276387863 -1.51396245284615 4.741971994048357 135 130 110
-0.33845155774408664 -0.06734679977413376 1.3844569299649176 128 115 98
-0.34502271231667486 -0.16557367843428647 1.410472300151932 147 132 111
-0.14751673339019578 -0.05565138632376586 1.0755940267106212 63 55 51
-0.14847843863329244 -0.002399036656090223 1.0861047690068777 167 154 135
0.5840654304494804 -1.62385520041988 4.607856012795189 90 86 51
0.01596815718728548 -0.9587065886123886 4.745247984800062 122 73 59
-0.14675506027686186 -0.07540964245990248 1.077619524757987 176 152 116
0.5992410617066857 -1.340916727282415 4.7540164926170965 140 131 102
0.30174405167707663 -0.06385518498923048 1.0585143862979418 173 166 161
0.5906373530216764 -1.6259729265802674 4.699951648796415 125 120 78
-0.33993321265467774 -0.058924659189798764 1.3862950622892234 102 93 84
0.30211653048986165 -0.03395205903714341 1.058630083064246 187 171 146
0.30211653048986165 -0.03395205903714341 1.058630083064246 187 171 146
-0.1463729519691614 -0.06739367834978544 1.0778538883737998 79 63 40
-0.028117411827557517 -2.150510907709039 4.949676084343701 112 102 92
0.08674819447992431 -0.07270401598525011 0.829733919207708 139 109 73
0.3143216159392253 -0.07199633677072978 1.0544202580134552 170 155 133
0.3143216159392253 -0.07199633677072978 1.0544202580134552 170 155 133
-0.1326204574159424 -0.0542027320215264 1.089188973115181 124 103 74
0.08614534946103573 -0.005200298632976721 0.8286415850830049 108 86 65
0.49142786623272 -1.678093415678509 4.732901982534169 110 94 44
0.3155954559376248 -0.05897784929889166 1.057537976575849 147 137 129
0.3155954559376248 -0.05897784929889166 1.057537976575849 147 137 129
0.08557028757396591 -0.04537392454192003 0.8273918999738399 77 56 39
0.48782706361928 -1.3905731647970938 4.7318264011693865 99 64 11
0.48782706361928 -1.3905731647970938 4.7318264011693865 99 64 11
0.0849592091108778 -0.03991231957127251 0.8277863143456057 134 114 90
0.08491723403597241 -0.020727372310643217 0.8277519253836906 61 41 17
0.08499489501015976 0.010727905491044925 0.8287630895910635 125 94 66
0.4782925771371309 -1.5112955933484946 4.665118930842429 185 149 63
0.08475703165451721 -0.0693581727269322 0.8279458218494107 56 31 1
0.3147741058422985 -0.04397436080807408 1.051575272233723 121 105 79
0.08452023963321469 0.002796699855271739 0.8271709645499349 113 91 68
0.4821517571238873 -1.6025475043314263 4.7310622663806745 121 82 28
0.4821517571238873 -1.6025475043314263 4.7310622663806745 121 82 28
-0.35675071497799526 -0.006491244303134744 1.3835848361578955 176 169 159
0.4819100682848012 -1.4552496285325236 4.737674982538767 175 140 56
0.48340068720088797 -1.3645789645558932 4.762489288641164 183 154 86
0.08320048771373839 -0.06980276967730807 0.8266063585676727 136 109 79
0.08282948283648994 -0.07637264046868963 0.8241398063788841 126 96 60
0.4750006612445526 -1.6541304751355839 4.737801664295953 182 148 59
0.47541504941893037 -1.6693583498404612 4.747954317325811 182 161 69
0.08267153960924478 -0.07116797752528592 0.8266616693000984 132 102 66
-0.36032031550531785 -0.0152416165754305 1.389225806563611 148 141 133
-0.36032031550531785 -0.0152416165754305 1.389225806563611 148 141 133
0.3179689821900396 -0.08314748456444397 1.0538807550438063 140 115 73
0.08194928729482234 -0.05485921024555321 0.8260045416971462 41 31 21
0.4661261675632206 -1.3971049358532242 4.698313159984025 191 157 94
0.0817920991753361 -0.05186628844458953 0.8250384606928455 125 115 103
0.0818877215307723 -0.04142735660345166 0.8263343834346146 60 41 24
0.3198080480270931 -0.05642278893101208 1.0586042820972907 63 49 36
0.08168764919014379 0.007785397601143169 0.8282359425281344 152 122 94
0.08168764919014379 0.007785397601143169 0.8282359425281344 152 122 94
0.4641967109821394 -1.4334073814039323 4.707583694133875 121 95 31
0.4641967109821394 -1.4334073814039323 4.707583694133875 121 95 31
0.31940877802680173 -0.0769809288881037 1.0555458379052702 48 28 8
0.08099886894885414 -0.045955257301938855 0.823686107269125 124 103 86
0.31883301519463125 -0.053986091778970784 1.0528804950737323 142 129 113
0.4674739305313666 -1.2719753680428363 4.758239665967282 183 150 79
0.3187555750152542 0.005853196546120397 1.0525493008427618 134 104 68
0.08113355812569203 -0.030444350730438312 0.8261613248770943 45 29 1
0.08066040690613663 0.006774684344104313 0.8261305926149297 150 123 94
0.08028829325872842 -0.06455685150233474 0.8238088746547018 142 124 100
0.08050045924881233 -0.03706811190137606 0.8267974127765632 100 80 54
0.08020773316779735 -0.0687867500589706 0.8256561547486633 107 81 56
0.07963323051138935 -0.043410269443377746 0.8258715661597202 82 61 44
0.07936291180040689 0.004598225902884079 0.8252499841868814 111 85 58
0.4546103828932134 -1.6492825475328983 4.728238086140513 187 161 79
0.07892320417221037 -0.03665751612364723 0.8254456871975722 88 68 41
0.07871345545167734 -0.062339405103758086 0.8261081954778187 54 38 19
0.32052046205803447 -0.010505935386150756 1.0536374574699714 119 102 80
0.08052947047250099 -0.19762704784270885 0.8475703986424902 34 21 7
-0.36438861199584444 -0.007176769024874677 1.3894438040667005 131 123 112
0.44770632404308275 -1.8488675540100978 4.71532722364414 96 92 83
0.07820471911891691 -0.06074322071673401 0.8252682620040994 129 116 98
0.4449968144226588 -1.5476660433009786 4.700523884571877 194 158 74
0.07797365980268511 -0.043540216614757404 0.8247966760905082 139 118 101
0.4449381997952115 -1.5240538315434666 4.718383683193991 115 96 45
0.4485814107094941 -1.568142422472774 4.7618645205027 190 153 70
-0.36600521149104087 -0.009730551234507646 1.3911668521341107 161 153 140
0.44100356031041965 -1.4116134070988373 4.688482384422764 144 114 61
0.44179465862691103 -1.178711056722087 4.717930415026303 106 99 83
0.07721862633274014 -0.0693158104505789 0.8257282745995739 148 122 97
0.07721862633274014 -0.0693158104505789 0.8257282745995739 148 122 97
0.43785880541278693 -1.2264765236799966 4.682587184150813 99 84 47
0.07701548521971044 -0.062227868062338 0.8238081175447225 55 40 21
0.07703013570693876 -0.05898277257540444 0.8252731145981257 45 33 21
0.4392191296344652 -1.6295429238707246 4.70946921457089 156 126 43
-0.36816345088036423 0.004746241022936913 1.3949568289638243 150 140 128
0.32347090270685547 -0.008227772032804108 1.0560375995107252 155 137 117
0.07696213583303743 -0.016926285166788617 0.8263825738840661 155 135 108
0.0784411585117238 -0.16141209945637958 0.8426262318109761 43 27 4
0.32348459935015944 -0.007505613157899139 1.055188322819965 156 138 119
0.32336894077788886 -0.04755636550482644 1.054529999805792 116 99 73
0.07649275714178681 -0.012539031171191768 0.8245205938990282 92 75 47
0.4396062940762167 -1.478599997588432 4.74177999413521 83 76 50
0.43789918538990946 -1.37770030554755 4.72391755712689 185 150 82
0.07605317010898308 -0.0027760262264761087 0.825812580305032 147 129 107
0.039287150623529214 -0.0038190717995650555 0.4279757560721875 90 73 46
0.32500639042541385 -0.009310003727935763 1.0558432976060175 145 127 105
0.0756453895346211 -0.04548161939863742 0.825004914175684 141 119 102
0.3249557650335175 -0.0266278217453475 1.0550260966587197 65 45 21
0.3249557650335175 -0.0266278217453475 1.0550260966587197 65 45 21
0.077096711523359 -0.166387096858098 0.8425710066006545 135 119 103
0.077096711523359 -0.166387096858098 0.8425710066006545 135 119 103
0.32536675630661605 -0.03630256472202816 1.0560349972889898 51 34 4
0.07531587469587817 -0.06495916687930933 0.8260192027585899 145 127 105
0.4282899763391706 -1.2203723941176063 4.700506156490511 115 108 79
0.4318078535519742 -1.4333589225554828 4.743254575068169 80 64 40
0.07458707998520926 -0.04501402855316395 0.8245487249630643 130 109 92
0.07583354614548758 -0.16139822279505361 0.8415428677507747 42 30 8
0.07409023567832092 -0.04588217087386498 0.8235723852758039 131 108 90
0.0739792455753943 -0.0541005565788867 0.8247655259906286 132 120 108
0.0739792455753943 -0.0541005565788867 0.8247655259906286 132 120 108
0.32688588765277343 -0.018302713003362517 1.0564907014213538 135 115 88
0.4231339522908456 -1.2794320791107867 4.739672118031817 180 149 82
0.418403752363173 -1.4342826723151874 4.7015695315435915 102 90 66
0.07326723745167532 -0.06108587126514793 0.8240623107882813 132 119 103
0.07306819065656507 -0.06686204070700381 0.824967620843959 148 128 103
0.3266647302867863 -0.07793202217863208 1.054540600979782 138 116 79
0.3273830062123175 -0.03499344551316394 1.0568575659283002 134 115 83
0.41167699332289004 -1.4942969536023274 4.672396603150029 100 85 36
0.07243045100625192 -0.03161308046717118 0.8236690041802017 155 138 110
0.07239573393029367 -0.012994295340750112 0.8237643541878827 108 88 64
-0.3737700947815907 -0.05822609807991628 1.3982479223097946 161 148 133
0.413789050309995 -1.2308151692876284 4.7135045766680115 66 58 37
0.4151823750625893 -1.376238567524437 4.7397098450509505 113 93 48
0.0721370678639557 -0.07335945679080148 0.8237694801408278 44 14 0
0.07375367007371383 -0.17034060847877927 0.8424381236620042 147 134 117
0.07375367007371383 -0.17034060847877927 0.8424381236620042 147 134 117
0.07190846215239274 -0.056103583291162405 0.8239284073677897 26 13 6
0.07190846215239274 -0.056103583291162405 0.8239284073677897 26 13 6
0.32818379479920573 -0.08122489102894025 1.0558900039708714 130 104 71
0.32818379479920573 -0.08122489102894025 1.0558900039708714 130 104 71
0.07161533838087558 -0.042138853054765425 0.8233559520157959 142 123 106
0.32926254445228514 -0.012023644748575086 1.0573475269979362 137 117 93
0.40863170252891357 -1.3833664863869455 4.734374453182095 137 117 76
0.40080328106318597 -1.4055018492265205 4.668362117379176 89 73 50
0.07065162329441108 -0.044233846094345684 0.8238268974922603 74 53 36
0.07061581477186953 -0.04530491038554991 0.8237261296450602 120 98 81
0.40102774118183326 -1.299612465721031 4.690467915977532 62 60 36
0.07021183931796264 -0.0009493262184283792 0.8234860814376005 84 66 46
0.07006385380258769 -0.011006608261890012 0.8236214208598883 55 34 15
0.06986287782515263 -0.06926043274838618 0.8218840008641635 158 135 104
0.3295108510623721 -0.016687642379824723 1.0558517050398564 160 139 112
0.07004159546949566 -0.014155722474619254 0.8241763292979353 88 68 43
0.07004159546949566 -0.014155722474619254 0.8241763292979353 88 68 43
0.06998392451026246 -0.04266238778647711 0.8235503734535485 140 119 102
0.0699805723542212 -0.012744533442165062 0.824814982645497 110 89 68
0.330396940476474 -0.06743529861108753 1.0569791532952237 132 108 80
0.39932993558454233 -1.291342621106595 4.710329274827588 125 113 70
0.39932993558454233 -1.291342621106595 4.710329274827588 125 113 70
0.06979808791339523 -0.0490704571215186 0.8236153206568688 83 61 38
0.06977073098633516 -0.04486616328124703 0.8241322627452833 157 136 119
0.33243044616016804 -0.016855347622527203 1.0622670564409256 160 136 108
0.07085659515626787 -0.17089961555128164 0.8407391397775306 153 141 125
0.07085659515626787 -0.17089961555128164 0.8407391397775306 153 141 125
0.06910156086726611 -0.06373815346196435 0.8225560224243437 145 128 109
0.06926296483665516 -0.022182713653376346 0.8249562993744349 161 145 122
0.0692559853471626 -0.0532392250558656 0.825532885095118 131 119 103
0.39594500417384476 -1.5026480004168834 4.7222007497608045 129 105 43
0.06893236275009615 -0.03626800784866785 0.8244903355976573 100 80 51
0.06886442589239854 0.00455026666466302 0.824124303230859 126 99 78
0.33178685947277153 -0.07914856281606741 1.0581239143616306 116 91 60
0.331537827664133 -0.08175895805776585 1.0570917480781044 80 55 25
0.06882279575153954 -0.04451597810714266 0.8241566145754472 97 76 60
0.06864150072785857 -0.010396763602678015 0.8233341184665608 44 23 6
0.06862701186422186 -0.03924455218269091 0.8233111791690585 176 155 134
0.06868452257427028 -0.040231957674697255 0.824027466171665 97 76 57
0.39758295875568017 -1.3024274112780287 4.777324814191638 79 73 47
0.06856032407409453 -0.011943884795730827 0.8241789940135107 94 73 52
0.06850235468102336 -0.046279730808884485 0.8236914900756301 144 122 106
0.06968210529373355 -0.1747551476685913 0.8409983822779585 49 37 21
0.06857307586646043 -0.07635051301728463 0.828045549412184 140 108 70
0.06825012392877651 -0.0052648593983932465 0.8248553605444101 98 80 58
0.06800653134144244 -0.027690285682415872 0.824171453203288 161 144 124
0.38840820268592596 -1.5725984688949561 4.707502813887012 107 75 28
0.06789399855122454 -0.04761922466638774 0.8242055252575257 144 123 104
0.06789399855122454 -0.04761922466638774 0.8242055252575257 144 123 104
0.38890213539178153 -1.2611103933177805 4.721609893484408 74 69 50
0.06767227271818474 -0.06168254942863502 0.8237879811754792 144 130 118
0.0645414393280511 0.03227939927805381 0.7870842391124305 213 191 166
0.06733865301635689 -0.058134069519277666 0.8238127309876576 138 126 121
0.06733865301635689 -0.058134069519277666 0.8238127309876576 138 126 121
0.3844061346911335 -1.6339716142729805 4.7108854760062675 196 163 82
0.3844061346911335 -1.6339716142729805 4.7108854760062675 196 163 82
0.06855263986008552 -0.16918710461440462 0.8403152343033589 45 33 19
0.0671978589188725 -0.0007399110395245491 0.8242494931068045 108 91 71
0.06717845180074038 -0.07089504550650663 0.8244075630153446 112 87 56
0.04747002311820775 0.006442321157593532 0.8408330070859311 103 79 51
0.06682862967188286 -0.1938860622602308 0.8204980027661481 120 105 86
0.06701778505062136 -0.04678298572967595 0.8233664299803835 78 56 42
0.06696343029663955 -0.044409577348346885 0.8237714656493048 158 136 122
0.06800820788082715 -0.16240066582474733 0.8399774629457795 152 140 128
0.38544018810442604 -1.3454970955014274 4.779228354608139 66 61 57
0.38544018810442604 -1.3454970955014274 4.779228354608139 66 61 57
0.06644264823696165 -0.001267756914922626 0.8247943587334204 107 90 70
0.06631384731523067 -0.02578588494651057 0.8250627603539717 50 33 15
0.06621895283892835 -0.0161295970448844 0.8245319520227874 160 142 120
0.06590830445960986 -0.07240228034259963 0.8226051361597079 134 106 73
0.3795365370362019 -1.5817317474658537 4.737259897839057 142 108 62
0.3885943550018917 -1.7719118939662453 4.850632067407173 175 157 117
0.06302347854856613 0.033160029160582104 0.7872581553933333 215 190 170
0.06572036873902976 -0.04329264093280275 0.8244126552742006 152 130 116
0.06565739395988837 -0.01949920136456737 0.8251268019625831 51 34 14
0.37565468772151966 -1.4267912074338311 4.73091207394232 180 150 68
0.06525702741822786 -0.0002910106847388977 0.8251139228032347 169 152 132
0.06497381150512939 -0.04344957246378343 0.8242753549393304 157 138 123
0.06497381150512939 -0.04344957246378343 0.8242753549393304 157 138 123
0.06600465227058813 -0.164897709515733 0.8410719291914689 43 33 21
-0.09589432363485165 0.03204877257920092 0.9500821234744918 193 166 149
0.06552870292118697 -0.16054092618014415 0.8404436569437236 50 38 26
0.07252159719338815 -0.009411872299208634 0.9316009626042921 166 150 126
0.06413404257864351 -0.042481411253802066 0.8244323497611735 82 64 49
0.06413404257864351 -0.042481411253802066 0.8244323497611735 82 64 49
0.06543390588692956 -0.17308594224840146 0.841755638117266 157 148 135
0.06543390588692956 -0.17308594224840146 0.841755638117266 157 148 135
0.06517837999534361 -0.1742829772026939 0.8416380090678288 62 52 40
0.06382863595655316 -0.05008416225122501 0.8247330355982238 135 119 107
0.367047177823649 -1.6935652072569594 4.748134015899968 86 77 44
0.06354615438678077 -0.0608587845478982 0.8243839445547192 41 27 21
0.06355100333937641 -0.05547132042652746 0.824792796466134 36 26 25
0.06332260663842541 -0.04806474716616551 0.8240611288265608 83 65 53
-0.11111519332697156 -1.9206918436085056 4.428571993504074 113 102 98
0.06314126583424627 -0.05123289639946337 0.8240748798677436 144 131 122
0.06305754648880506 -0.0006452274177259864 0.825023966158379 173 157 134
0.06305754648880506 -0.0006452274177259864 0.825023966158379 173 157 134
0.06294082871517838 -0.04025954934277786 0.8250556495961473 153 136 110
0.35960062057718273 -1.2479676051942508 4.714804549638215 130 128 116
0.0641412358220955 -0.16773310185888402 0.8415740566498016 172 163 153
0.06261577358142903 -0.025133602494658524 0.8254941169660999 160 145 126
0.062448393621168885 -0.04297989427388636 0.8248334120240555 90 74 59
0.062425491636993374 -0.04187599507843838 0.8248020492577517 83 66 50
0.062425491636993374 -0.04187599507843838 0.8248020492577517 83 66 50
0.062135642317192805 -0.0288167396738989 0.8253797617207325 78 62 36
0.061987159666258285 -0.06324136091857001 0.824138462587792 159 145 132
0.35355049971307245 -1.3654524288007464 4.718735402124486 162 140 85
0.061708610548688085 0.004502756895214218 0.8256391946846042 131 109 88
0.061627080639770536 -0.04400141666995473 0.8254130579291981 154 138 125
0.06166940554981292 0.006865056175428129 0.8260431076589522 173 149 125
0.06129653386156407 -0.030743033360436586 0.8248135285256379 58 41 12
0.06221369709596053 -0.17538476949211435 0.8427162995700537 65 55 45
0.34895552116015655 -1.318020197679424 4.730534548547805 62 54 52
0.3517528570910649 -1.639958308647125 4.781416273783837 203 174 93
0.3464976615459824 -1.7453745315896387 4.712141418434822 141 120 73
0.06068610574143283 -0.045321231093361856 0.8255760992343817 80 66 53
0.06064961466099626 -0.024416562105408726 0.825389485521184 111 96 75
0.06011390528124995 -0.04351327616061887 0.8187691789478309 82 66 53
0.061804335111908644 -0.16458371855228374 0.8421487915961479 64 54 44
0.061804335111908644 -0.16458371855228374 0.8421487915961479 64 54 44
0.06143607207024309 -0.16577703667895646 0.8426527156475007 199 190 181
0.060182696653030957 -0.022911166041242503 0.8262050733339631 165 150 129
0.06015846178762255 0.004322034972477752 0.8263172567515878 128 106 84
0.06015703254359923 0.005622528322450641 0.82644131701845 170 148 126
0.06011732681151977 -0.028569760378159868 0.8263082365883688 152 136 110
0.34399397236575113 -1.2348610474046415 4.731159746142172 67 66 61
0.060004711849738865 -0.04722505356262874 0.8254027992179164 155 141 130
0.059909918796905284 -0.04604639423896953 0.8257529336617216 172 158 147
0.05948083005534149 -0.07312040969707352 0.8252256298070926 158 131 102
0.33822197866790393 -1.377872350728597 4.701818188845803 136 109 50
0.05926147239348807 0.004812634510711148 0.8272727903757041 177 155 134
0.059150382073173545 -0.04667820266824232 0.8259963194696273 70 57 46
0.34371855372022253 -1.4237688050472102 4.808453362169389 176 146 76
0.33853534317622813 -1.5294585153500442 4.741777573906062 156 123 42
0.05892697356420689 -0.07190221881453109 0.8258791933608738 74 49 24
0.05889026401595086 -0.06899561298423158 0.8253819737147062 126 107 83
0.058883455715608574 0.0030878805402045576 0.8270490293026135 179 158 138
0.06021606046470091 -0.19937709710942092 0.8461890213551535 134 118 102
0.05863624735221948 -0.06922577950066762 0.8261039431526381 121 101 77
0.058525712676155354 -0.007615086074376199 0.8267695646594723 106 90 67
0.06761720031933413 -0.0319365639494081 0.9553734787430257 59 43 20
0.058444139786287326 -0.047507211602063906 0.8259084507675151 155 142 133
0.05842487537234775 -0.025960451455671347 0.8274976729608265 52 35 15
0.33421884191047146 -1.5722170220327967 4.733844460799723 191 159 77
0.33194611166554827 -1.206256181954416 4.702482918938582 103 103 93
0.05818776851426398 -0.030466778119262395 0.8274942595569278 54 38 13
0.05772093527289749 -0.06793233861082751 0.8257163028085692 154 136 112
0.058219675836691444 -0.04714641846161169 0.8329686075356101 80 67 58
0.057799236295896304 -0.005370345815440768 0.8276078426268447 88 72 47
0.3296094805644908 -1.4503526518087442 4.7229588939379115 137 104 59
0.05711511708121007 -0.06993181241142274 0.8270191782744308 61 41 16
0.322919951111687 -1.362010875151613 4.695018712495918 177 153 89
0.322919951111687 -1.362010875151613 4.695018712495918 177 153 89
0.05590361688571917 0.006287539003554821 0.8280798623951375 180 158 135
0.32439269036080537 -1.3460145193245956 4.807890428801989 181 151 79
0.32439269036080537 -1.3460145193245956 4.807890428801989 181 151 79
0.05586075746096034 0.002050703427850009 0.8282172262960144 171 152 135
0.05586075746096034 0.002050703427850009 0.8282172262960144 171 152 135
0.0556840988255118 -0.0008045765668996804 0.8286284782478659 177 159 139
0.055736012509311185 -0.006571738157726614 0.8301731484715179 174 158 135
0.32392972830244 -1.870955051135221 4.829607187090989 107 83 59
0.05550361780282391 0.0029837265744248756 0.8286706588804028 41 20 3
0.05525717098997837 -0.0430301920769122 0.8278173081369764 124 109 92
0.05530441760073225 0.004425084196057815 0.8287364769937465 168 147 126
0.05532852755884262 -0.005384449587073337 0.8296488472220876 122 106 83
0.05531189331661114 -0.008720424206078152 0.8305760255302654 169 153 131
0.05737840449865787 -0.023008779009095964 0.8619960282878217 52 37 18
0.3151606434107857 -1.5436807946033475 4.7380839789591676 118 94 30
0.3126367482570225 -1.616002107959778 4.730194300344516 93 84 54
0.3091156088156769 -1.389256198141598 4.698186961794743 134 108 40
0.05443519484158573 -0.07007540204957052 0.8277092144389177 166 145 119
0.054497573052786144 -0.048366085977212786 0.8288042727114779 147 133 126
0.054531141873690604 -0.0253128575861822 0.8296954670439378 172 157 138
0.05440302075121145 -0.004396894278039256 0.8288221398841998 185 168 146
0.05504605122748629 -0.005865088721219773 0.8405539381753258 172 156 133
0.05390280390901953 -0.045440467338060245 0.8291889384744364 106 92 81
0.05397979348384602 0.007205947190682156 0.8306138058659442 83 57 32
0.05382210119105246 0.0006587210215637412 0.8319111664573634 68 49 32
0.053554792674739206 -0.049680376782457895 0.8293016656980903 90 77 69
0.053481562266181865 -0.005384692359088269 0.8294953330001146 102 86 61
0.053481562266181865 -0.005384692359088269 0.8294953330001146 102 86 61
0.3039096505523449 -1.794316237430899 4.715126209954865 107 72 32
0.3039096505523449 -1.794316237430899 4.715126209954865 107 72 32
0.053437747073519365 -0.04852562884547634 0.829440043426951 145 131 123
0.05340327460510881 -0.022855825659930395 0.8296869163093793 172 157 138
0.3039117090883461 -1.551899788522473 4.763232453159904 112 98 61
0.30150833905572777 -1.6606739766967173 4.73139105824235 80 70 35
0.30063677913081976 -1.4960160500938906 4.725732636418554 200 170 85
0.05286127935938374 -0.0012485504889134028 0.8311568139050158 50 32 12
0.05239619092939382 -0.050365562912051895 0.8291104679028485 162 150 143
0.2988468163941275 -1.3088376491995724 4.730779422231326 177 143 90
-0.4166250945372877 -1.7769507298257958 4.765045017611331 141 130 126
0.29545558933604166 -1.36033074173661 4.705372993299987 86 66 30
0.051951731816574975 -0.07377404364075221 0.829770677191997 163 134 102
0.051951731816574975 -0.07377404364075221 0.829770677191997 163 134 102
0.05194877261096309 0.006300678734043163 0.8313583893709438 176 152 126
0.2927760928140381 -1.2376397391295535 4.688254091213838 104 104 96
0.2928025014230542 -1.2380780865477699 4.689294965644533 96 95 90
0.051728122306394765 0.00769293691617919 0.8316960863075503 45 19 0
0.2943826509476286 -1.5655702265782154 4.740186626494565 95 86 53
0.05165459417095389 -0.02128044523457161 0.8325792692910898 54 39 20
0.05165459417095389 -0.02128044523457161 0.8325792692910898 54 39 20
0.05112046536852181 -0.0326655195378804 0.8310404814692588 59 47 21
0.050956001647735935 0.0032062048087688607 0.831162762463537 169 147 124
0.286960253059889 -1.444800214410355 4.728705749178422 202 175 104
0.286960253059889 -1.444800214410355 4.728705749178422 202 175 104
0.2777764137263764 -1.4742118930763612 4.699342307354657 176 155 88
0.2714700891935688 -1.3136313772366044 4.661316460427307 198 162 88
0.27324486315266955 -1.1392682390449818 4.704886757337002 124 121 112
0.27147920763058625 -1.4848483480545436 4.762739941700536 103 92 53
0.04747002311820775 0.006442321157593532 0.8408330070859311 103 79 51
0.04712586891656196 0.0030101689879544337 0.8371507965053748 163 139 115
0.2623717620309425 -1.5424799605402948 4.694929033170806 97 93 67
0.263746046264679 -1.6557819934799536 4.7711539999666135 163 149 120
-0.39382536813045127 -1.9123889995948231 4.7657069483279075 124 114 104
0.04580034955589614 -0.07026255359760702 0.8363910540068866 86 58 21
0.04580034955589614 -0.07026255359760702 0.8363910540068866 86 58 21
0.045666950917469876 -0.06918996573592257 0.8363069905993695 179 151 114
0.04542095201363009 -0.007896419504843965 0.8384895292310338 76 49 19
0.04530585983484425 -0.002345525487122728 0.8387129140940407 79 49 21
0.04504294740502997 -0.04597013753775533 0.8376093535075712 68 46 15
0.044958730304124596 0.007137018517476042 0.8391502820576935 153 126 99
0.04465245115035543 -0.06956074846997451 0.8371330903840971 73 43 9
0.04454038436744727 -0.0746275325350439 0.8383144830665288 73 42 12
0.2566824130055287 -1.7479595401002492 4.832343944131598 196 160 82
0.2485819636714837 -1.3951989857527294 4.700636673713365 127 116 84
0.24406657820385555 -1.3331266566775943 4.693686317259223 158 129 62
0.2388304457457893 -1.7453848972093058 4.741717066981093 134 97 42
1.0219782068978671 -0.3679082542784873 2.4175056059435938 162 157 154
